-2352.000000 714.000000 -396.000000
-2352.000000 712.000000 -396.000000
-2352.000000 710.000000 -396.000000
-2352.000000 708.000000 -396.000000
-2352.000000 706.000000 -396.000000
-2352.000000 704.000000 -396.000000
-2352.000000 702.000000 -396.000000
-2352.000000 700.000000 -396.000000
-2352.000000 698.000000 -396.000000
-2352.000000 696.000000 -396.000000
-2352.000000 694.000000 -396.000000
-2352.000000 692.000000 -396.000000
-2352.000000 690.000000 -396.000000
-2352.000000 688.000000 -396.000000
-2352.000000 686.000000 -396.000000
-2352.000000 684.000000 -396.000000
-2352.000000 682.000000 -396.000000
-2352.000000 680.000000 -396.000000
-2352.000000 678.000000 -396.000000
-2352.000000 676.000000 -396.000000
-2352.000000 674.000000 -396.000000
-2352.000000 672.000000 -396.000000
-2352.000000 670.000000 -396.000000
-2352.000000 668.000000 -396.000000
-2352.000000 666.000000 -396.000000
-2352.000000 664.000000 -396.000000
-2352.000000 662.000000 -396.000000
-2352.000000 660.000000 -396.000000
-2352.000000 658.000000 -396.000000
-2352.000000 656.000000 -396.000000
-2352.000000 654.000000 -396.000000
-2352.000000 652.000000 -396.000000
-2352.000000 650.000000 -396.000000
-2352.000000 648.000000 -396.000000
-2352.000000 646.000000 -396.000000
-2352.000000 644.000000 -396.000000
-2352.000000 642.000000 -396.000000
-2352.000000 640.000000 -396.000000
-2352.000000 638.000000 -396.000000
-2352.000000 636.000000 -396.000000
-2352.000000 634.000000 -396.000000
-2352.000000 632.000000 -396.000000
-2352.000000 630.000000 -396.000000
-2352.000000 628.000000 -396.000000
-2352.000000 626.000000 -396.000000
-2352.000000 624.000000 -396.000000
-2352.000000 622.000000 -396.000000
-2352.000000 620.000000 -396.000000
-2352.000000 618.000000 -396.000000
-2352.000000 616.000000 -396.000000
-2352.000000 614.000000 -396.000000
-2352.000000 612.000000 -396.000000
-2352.000000 610.000000 -396.000000
-2352.000000 608.000000 -396.000000
-2352.000000 606.000000 -396.000000
-2352.000000 604.000000 -396.000000
-2352.000000 602.000000 -396.000000
-2352.000000 600.000000 -396.000000
-2352.000000 598.000000 -396.000000
-2352.000000 596.000000 -396.000000
-2352.000000 594.000000 -396.000000
-2352.000000 592.000000 -396.000000
-2352.000000 590.000000 -396.000000
-2352.000000 588.000000 -396.000000
-2352.000000 586.000000 -396.000000
-2352.000000 584.000000 -396.000000
-2352.000000 582.000000 -396.000000
-2352.000000 580.000000 -396.000000
-2352.000000 578.000000 -396.000000
-2352.000000 576.000000 -396.000000
-2352.000000 574.000000 -396.000000
-2352.000000 572.000000 -396.000000
-2352.000000 570.000000 -396.000000
-2352.000000 568.000000 -396.000000
-2352.000000 566.000000 -396.000000
-2352.000000 564.000000 -396.000000
-2352.000000 562.000000 -396.000000
-2352.000000 560.000000 -396.000000
-2352.000000 558.000000 -396.000000
-2352.000000 556.000000 -396.000000
-2352.000000 554.000000 -396.000000
-2352.000000 552.000000 -396.000000
-2352.000000 550.000000 -396.000000
-2352.000000 548.000000 -396.000000
-2352.000000 546.000000 -396.000000
-2352.000000 544.000000 -396.000000
-2352.000000 542.000000 -396.000000
-2352.000000 540.000000 -396.000000
-2352.000000 538.000000 -396.000000
-2352.000000 536.000000 -396.000000
-2352.000000 534.000000 -396.000000
-2352.000000 532.000000 -396.000000
-2352.000000 530.000000 -396.000000
-2352.000000 528.000000 -396.000000
-2352.000000 526.000000 -396.000000
-2352.000000 524.000000 -396.000000
-2352.000000 522.000000 -396.000000
-2352.000000 520.000000 -396.000000
-2352.000000 518.000000 -396.000000
-2352.000000 516.000000 -396.000000
-2352.000000 514.000000 -396.000000
-2352.000000 512.000000 -396.000000
-2352.000000 510.000000 -396.000000
-2352.000000 508.000000 -396.000000
-2352.000000 506.000000 -396.000000
-2352.000000 504.000000 -396.000000
-2352.000000 502.000000 -396.000000
-2352.000000 500.000000 -396.000000
-2352.000000 498.000000 -396.000000
-2352.000000 496.000000 -396.000000
-2352.000000 494.000000 -396.000000
-2352.000000 492.000000 -396.000000
-2352.000000 490.000000 -396.000000
-2352.000000 488.000000 -396.000000
-2352.000000 486.000000 -396.000000
-2352.000000 484.000000 -396.000000
-2352.000000 482.000000 -396.000000
-2352.000000 480.000000 -396.000000
-2352.000000 478.000000 -396.000000
-2352.000000 476.000000 -396.000000
-2352.000000 474.000000 -396.000000
-2352.000000 472.000000 -396.000000
-2352.000000 470.000000 -396.000000
-2352.000000 468.000000 -396.000000
-2352.000000 466.000000 -396.000000
-2352.000000 464.000000 -396.000000
-2352.000000 462.000000 -396.000000
-2352.000000 460.000000 -396.000000
-2352.000000 458.000000 -396.000000
-2352.000000 456.000000 -396.000000
-2352.000000 454.000000 -396.000000
-2352.000000 452.000000 -396.000000
-2352.000000 450.000000 -396.000000
-2352.000000 448.000000 -396.000000
-2352.000000 446.000000 -396.000000
-2352.000000 444.000000 -396.000000
-2352.000000 442.000000 -396.000000
-2352.000000 440.000000 -396.000000
-2352.000000 438.000000 -396.000000
-2352.000000 436.000000 -396.000000
-2352.000000 434.000000 -396.000000
-2352.000000 432.000000 -396.000000
-2352.000000 430.000000 -396.000000
-2352.000000 428.000000 -396.000000
-2352.000000 426.000000 -396.000000
-2352.000000 424.000000 -396.000000
-2352.000000 422.000000 -396.000000
-2352.000000 420.000000 -396.000000
-2352.000000 418.000000 -396.000000
-2352.000000 416.000000 -396.000000
-2352.000000 414.000000 -396.000000
-2352.000000 412.000000 -396.000000
-2352.000000 410.000000 -396.000000
-2352.000000 408.000000 -396.000000
-2352.000000 406.000000 -396.000000
-2352.000000 404.000000 -396.000000
-2352.000000 402.000000 -396.000000
-2352.000000 400.000000 -396.000000
-2352.000000 398.000000 -396.000000
-2352.000000 396.000000 -396.000000
-2352.000000 394.000000 -396.000000
-2352.000000 392.000000 -396.000000
-2352.000000 390.000000 -396.000000
-2352.000000 388.000000 -396.000000
-2352.000000 386.000000 -396.000000
-2352.000000 384.000000 -396.000000
-2352.000000 382.000000 -396.000000
-2352.000000 380.000000 -396.000000
-2352.000000 378.000000 -396.000000
-2352.000000 376.000000 -396.000000
-2352.000000 374.000000 -396.000000
-2352.000000 372.000000 -396.000000
-2352.000000 370.000000 -396.000000
-2352.000000 368.000000 -396.000000
-2352.000000 366.000000 -396.000000
-2352.000000 364.000000 -396.000000
-2352.000000 362.000000 -396.000000
-2352.000000 360.000000 -396.000000
-2352.000000 358.000000 -396.000000
-2352.000000 356.000000 -396.000000
-2352.000000 354.000000 -396.000000
-2352.000000 352.000000 -396.000000
-2352.000000 350.000000 -396.000000
-2352.000000 348.000000 -396.000000
-2352.000000 346.000000 -396.000000
-2352.000000 344.000000 -396.000000
-2352.000000 342.000000 -396.000000
-2352.000000 340.000000 -396.000000
-2352.000000 338.000000 -396.000000
-2352.000000 336.000000 -396.000000
-2352.000000 334.000000 -396.000000
-2352.000000 332.000000 -396.000000
-2352.000000 330.000000 -396.000000
-2352.000000 328.000000 -396.000000
-2352.000000 326.000000 -396.000000
-2352.000000 324.000000 -396.000000
-2352.000000 322.000000 -396.000000
-2352.000000 320.000000 -396.000000
-2352.000000 318.000000 -396.000000
-2352.000000 316.000000 -396.000000
-2352.000000 314.000000 -396.000000
-2352.000000 312.000000 -396.000000
-2352.000000 310.000000 -396.000000
-2352.000000 308.000000 -396.000000
-2352.000000 306.000000 -396.000000
-2352.000000 304.000000 -396.000000
-2352.000000 302.000000 -396.000000
-2352.000000 300.000000 -396.000000
-2352.000000 298.000000 -396.000000
-2352.000000 296.000000 -396.000000
-2352.000000 294.000000 -396.000000
-2352.000000 292.000000 -396.000000
-2352.000000 290.000000 -396.000000
-2352.000000 288.000000 -396.000000
-2352.000000 286.000000 -396.000000
-2352.000000 284.000000 -396.000000
-2352.000000 282.000000 -396.000000
-2352.000000 280.000000 -396.000000
-2352.000000 278.000000 -396.000000
-2352.000000 276.000000 -396.000000
-2352.000000 274.000000 -396.000000
-2352.000000 272.000000 -396.000000
-2352.000000 270.000000 -396.000000
-2352.000000 268.000000 -396.000000
-2352.000000 266.000000 -396.000000
-2352.000000 264.000000 -396.000000
-2352.000000 262.000000 -396.000000
-2352.000000 260.000000 -396.000000
-2352.000000 258.000000 -396.000000
-2352.000000 256.000000 -396.000000
-2352.000000 254.000000 -396.000000
-2352.000000 252.000000 -396.000000
-2352.000000 250.000000 -396.000000
-2352.000000 248.000000 -396.000000
-2352.000000 246.000000 -396.000000
-2352.000000 244.000000 -396.000000
-2352.000000 242.000000 -396.000000
-2352.000000 240.000000 -396.000000
-2352.000000 238.000000 -396.000000
-2352.000000 236.000000 -396.000000
-2352.000000 234.000000 -396.000000
-2352.000000 232.000000 -396.000000
-2352.000000 230.000000 -396.000000
-2352.000000 228.000000 -396.000000
-2352.000000 224.000000 -396.000000
-2352.000000 222.000000 -396.000000
-2352.000000 220.000000 -396.000000
-2352.000000 218.000000 -396.000000
-2352.000000 216.000000 -396.000000
-2352.000000 214.000000 -396.000000
-2352.000000 212.000000 -396.000000
-2352.000000 210.000000 -396.000000
-2352.000000 208.000000 -396.000000
-2352.000000 206.000000 -396.000000
-2352.000000 204.000000 -396.000000
-2352.000000 202.000000 -396.000000
-2352.000000 200.000000 -396.000000
-2352.000000 198.000000 -396.000000
-2352.000000 196.000000 -396.000000
-2352.000000 194.000000 -396.000000
-2352.000000 192.000000 -396.000000
-2352.000000 190.000000 -396.000000
-2352.000000 188.000000 -396.000000
-2352.000000 186.000000 -396.000000
-2352.000000 184.000000 -396.000000
-2352.000000 182.000000 -396.000000
-2352.000000 180.000000 -396.000000
-2352.000000 178.000000 -396.000000
-2352.000000 176.000000 -396.000000
-2352.000000 174.000000 -396.000000
-2352.000000 172.000000 -396.000000
-2352.000000 170.000000 -396.000000
-2352.000000 168.000000 -396.000000
-2352.000000 166.000000 -396.000000
-2352.000000 164.000000 -396.000000
-2352.000000 162.000000 -396.000000
-2352.000000 160.000000 -396.000000
-2352.000000 158.000000 -396.000000
-2352.000000 156.000000 -396.000000
-2352.000000 154.000000 -396.000000
-2352.000000 152.000000 -396.000000
-2352.000000 150.000000 -396.000000
-2352.000000 148.000000 -396.000000
-2352.000000 146.000000 -396.000000
-2352.000000 144.000000 -396.000000
-2352.000000 142.000000 -396.000000
-2352.000000 140.000000 -396.000000
-2352.000000 138.000000 -396.000000
-2352.000000 136.000000 -396.000000
-2352.000000 134.000000 -396.000000
-2352.000000 132.000000 -396.000000
-2352.000000 130.000000 -396.000000
-2352.000000 128.000000 -396.000000
-2352.000000 126.000000 -396.000000
-2352.000000 124.000000 -396.000000
-2352.000000 122.000000 -396.000000
-2352.000000 120.000000 -396.000000
-2352.000000 118.000000 -396.000000
-2352.000000 116.000000 -396.000000
-2352.000000 114.000000 -396.000000
-2352.000000 112.000000 -396.000000
-2352.000000 110.000000 -396.000000
-2352.000000 108.000000 -396.000000
-2352.000000 106.000000 -396.000000
-2352.000000 104.000000 -396.000000
-2352.000000 102.000000 -396.000000
-2352.000000 100.000000 -396.000000
-2352.000000 98.000000 -396.000000
-2352.000000 96.000000 -396.000000
-2352.000000 94.000000 -396.000000
-2352.000000 92.000000 -396.000000
-2352.000000 90.000000 -396.000000
-2352.000000 88.000000 -396.000000
-2352.000000 86.000000 -396.000000
-2352.000000 84.000000 -396.000000
-2352.000000 82.000000 -396.000000
-2352.000000 80.000000 -396.000000
-2352.000000 78.000000 -396.000000
-2352.000000 76.000000 -396.000000
-2352.000000 74.000000 -396.000000
-2352.000000 72.000000 -396.000000
-2352.000000 70.000000 -396.000000
-2352.000000 68.000000 -396.000000
-2352.000000 66.000000 -396.000000
-2352.000000 64.000000 -396.000000
-2352.000000 62.000000 -396.000000
-2352.000000 60.000000 -396.000000
-2352.000000 58.000000 -396.000000
-2352.000000 56.000000 -396.000000
-2352.000000 54.000000 -396.000000
-2352.000000 52.000000 -396.000000
-2352.000000 50.000000 -396.000000
-2352.000000 48.000000 -396.000000
-2352.000000 46.000000 -396.000000
-2352.000000 44.000000 -396.000000
-2352.000000 42.000000 -396.000000
-2352.000000 40.000000 -396.000000
-2352.000000 38.000000 -396.000000
-2352.000000 36.000000 -396.000000
-2352.000000 34.000000 -396.000000
-2352.000000 32.000000 -396.000000
-2352.000000 30.000000 -396.000000
-2352.000000 28.000000 -396.000000
-2352.000000 26.000000 -396.000000
-2352.000000 24.000000 -396.000000
-2352.000000 22.000000 -396.000000
-2352.000000 20.000000 -396.000000
-2352.000000 18.000000 -396.000000
-2352.000000 16.000000 -396.000000
-2352.000000 14.000000 -396.000000
-2352.000000 12.000000 -396.000000
-2352.000000 10.000000 -396.000000
-2352.000000 8.000000 -396.000000
-2352.000000 6.000000 -396.000000
-2352.000000 4.000000 -396.000000
-2352.000000 2.000000 -396.000000
-2352.000000 0.000000 -396.000000
-2352.000000 -2.000000 -396.000000
-2352.000000 -4.000000 -396.000000
-2352.000000 -6.000000 -396.000000
-2352.000000 -8.000000 -396.000000
-2352.000000 -10.000000 -396.000000
-2352.000000 -12.000000 -396.000000
-2352.000000 -14.000000 -396.000000
-2352.000000 -16.000000 -396.000000
-2352.000000 -18.000000 -396.000000
-2352.000000 -20.000000 -396.000000
-2352.000000 -22.000000 -396.000000
-2352.000000 -24.000000 -396.000000
-2352.000000 -26.000000 -396.000000
-2352.000000 -28.000000 -396.000000
-2352.000000 -30.000000 -396.000000
-2352.000000 -32.000000 -396.000000
-2352.000000 -34.000000 -396.000000
-2352.000000 -36.000000 -396.000000
-2352.000000 -38.000000 -396.000000
-2352.000000 -40.000000 -396.000000
-2352.000000 -42.000000 -396.000000
-2352.000000 -44.000000 -396.000000
-2352.000000 -46.000000 -396.000000
-2352.000000 -48.000000 -396.000000
-2352.000000 -50.000000 -396.000000
-2352.000000 -52.000000 -396.000000
-2352.000000 -54.000000 -396.000000
-2352.000000 -56.000000 -396.000000
-2352.000000 -58.000000 -396.000000
-2352.000000 -60.000000 -396.000000
-2352.000000 -62.000000 -396.000000
-2352.000000 -64.000000 -396.000000
-2352.000000 -66.000000 -396.000000
-2352.000000 -68.000000 -396.000000
-2352.000000 -70.000000 -396.000000
-2352.000000 -72.000000 -396.000000
-2352.000000 -74.000000 -396.000000
-2352.000000 -76.000000 -396.000000
-2352.000000 -78.000000 -396.000000
-2352.000000 -80.000000 -396.000000
-2352.000000 -82.000000 -396.000000
-2352.000000 -84.000000 -396.000000
-2352.000000 -86.000000 -396.000000
-2352.000000 -88.000000 -396.000000
-2352.000000 -90.000000 -396.000000
-2352.000000 -92.000000 -396.000000
-2352.000000 -94.000000 -396.000000
-2352.000000 -96.000000 -396.000000
-2352.000000 -98.000000 -396.000000
-2352.000000 -100.000000 -396.000000
-2352.000000 -102.000000 -396.000000
-2352.000000 -104.000000 -396.000000
-2352.000000 -106.000000 -396.000000
-2352.000000 -108.000000 -396.000000
-2352.000000 -110.000000 -396.000000
-2352.000000 -112.000000 -396.000000
-2352.000000 -114.000000 -396.000000
-2352.000000 -116.000000 -396.000000
-2352.000000 -118.000000 -396.000000
-2352.000000 -120.000000 -396.000000
-2352.000000 -122.000000 -396.000000
-2352.000000 -124.000000 -396.000000
-2352.000000 -126.000000 -396.000000
-2352.000000 -128.000000 -396.000000
-2352.000000 -130.000000 -396.000000
-2352.000000 -132.000000 -396.000000
-2352.000000 -134.000000 -396.000000
-2352.000000 -136.000000 -396.000000
-2352.000000 -138.000000 -396.000000
-2352.000000 -140.000000 -396.000000
-2352.000000 -142.000000 -396.000000
-2352.000000 -144.000000 -396.000000
-2352.000000 -146.000000 -396.000000
-2352.000000 -148.000000 -396.000000
-2352.000000 -150.000000 -396.000000
-2352.000000 -152.000000 -396.000000
-2352.000000 -154.000000 -396.000000
-2352.000000 -156.000000 -396.000000
-2352.000000 -158.000000 -396.000000
-2352.000000 -160.000000 -396.000000
-2352.000000 -162.000000 -396.000000
-2352.000000 -164.000000 -396.000000
-2352.000000 -166.000000 -396.000000
-2352.000000 -168.000000 -396.000000
-2352.000000 -170.000000 -396.000000
-2352.000000 -172.000000 -396.000000
-2352.000000 -176.000000 -396.000000
-2352.000000 -178.000000 -396.000000
-2352.000000 -180.000000 -396.000000
-2352.000000 -182.000000 -396.000000
-2352.000000 -184.000000 -396.000000
-2352.000000 -186.000000 -396.000000
-2352.000000 -188.000000 -396.000000
-2352.000000 -190.000000 -396.000000
-2352.000000 -192.000000 -396.000000
-2352.000000 -194.000000 -396.000000
-2352.000000 -196.000000 -396.000000
-2352.000000 -198.000000 -396.000000
-2352.000000 -200.000000 -396.000000
-2352.000000 -202.000000 -396.000000
-2352.000000 -204.000000 -396.000000
-2352.000000 -206.000000 -396.000000
-2352.000000 -208.000000 -396.000000
-2352.000000 -210.000000 -396.000000
-2352.000000 -212.000000 -396.000000
-2352.000000 -214.000000 -396.000000
-2352.000000 -216.000000 -396.000000
-2352.000000 -218.000000 -396.000000
-2352.000000 -220.000000 -396.000000
-2352.000000 -222.000000 -396.000000
-2352.000000 -224.000000 -396.000000
-2352.000000 -226.000000 -396.000000
-2352.000000 -228.000000 -396.000000
-2352.000000 -230.000000 -396.000000
-2352.000000 -232.000000 -396.000000
-2352.000000 -234.000000 -396.000000
-2352.000000 -236.000000 -396.000000
-2352.000000 -238.000000 -396.000000
-2352.000000 -240.000000 -396.000000
-2352.000000 -242.000000 -396.000000
-2352.000000 -244.000000 -396.000000
-2352.000000 -246.000000 -396.000000
-2352.000000 -248.000000 -396.000000
-2352.000000 -250.000000 -396.000000
-2352.000000 -252.000000 -396.000000
-2352.000000 -254.000000 -396.000000
-2352.000000 -256.000000 -396.000000
-2352.000000 -258.000000 -396.000000
-2352.000000 -260.000000 -396.000000
-2352.000000 -262.000000 -396.000000
-2352.000000 -264.000000 -396.000000
-2352.000000 -266.000000 -396.000000
-2352.000000 -268.000000 -396.000000
-2352.000000 -270.000000 -396.000000
-2352.000000 -272.000000 -396.000000
-2352.000000 -274.000000 -396.000000
-2352.000000 -276.000000 -396.000000
-2352.000000 -278.000000 -396.000000
-2352.000000 -280.000000 -396.000000
-2352.000000 -282.000000 -396.000000
-2352.000000 -284.000000 -396.000000
-2352.000000 -286.000000 -396.000000
-2352.000000 -288.000000 -396.000000
-2352.000000 -290.000000 -396.000000
-2352.000000 -292.000000 -396.000000
-2352.000000 -294.000000 -396.000000
-2352.000000 -296.000000 -396.000000
-2352.000000 -298.000000 -396.000000
-2352.000000 -300.000000 -396.000000
-2352.000000 -302.000000 -396.000000
-2352.000000 -304.000000 -396.000000
-2352.000000 -306.000000 -396.000000
-2352.000000 -308.000000 -396.000000
-2352.000000 -310.000000 -396.000000
-2352.000000 -312.000000 -396.000000
-2352.000000 -314.000000 -396.000000
-2352.000000 -316.000000 -396.000000
-2352.000000 -318.000000 -396.000000
-2352.000000 -320.000000 -396.000000
-2352.000000 -322.000000 -396.000000
-2352.000000 -324.000000 -396.000000
-2352.000000 -326.000000 -396.000000
-2352.000000 -328.000000 -396.000000
-2352.000000 -330.000000 -396.000000
-2352.000000 -332.000000 -396.000000
-2352.000000 -334.000000 -396.000000
-2352.000000 -336.000000 -396.000000
-2352.000000 -338.000000 -396.000000
-2352.000000 -340.000000 -396.000000
-2352.000000 -342.000000 -396.000000
-2352.000000 -344.000000 -396.000000
-2352.000000 -346.000000 -396.000000
-2352.000000 -348.000000 -396.000000
-2352.000000 -350.000000 -396.000000
-2352.000000 -352.000000 -396.000000
-2352.000000 -354.000000 -396.000000
-2352.000000 -356.000000 -396.000000
-2352.000000 -358.000000 -396.000000
-2352.000000 -360.000000 -396.000000
-2352.000000 -362.000000 -396.000000
-2352.000000 -364.000000 -396.000000
-2352.000000 -366.000000 -396.000000
-2352.000000 -368.000000 -396.000000
-2352.000000 -370.000000 -396.000000
-2352.000000 -372.000000 -396.000000
-2352.000000 -374.000000 -396.000000
-2352.000000 -376.000000 -396.000000
-2352.000000 -378.000000 -396.000000
-2352.000000 -380.000000 -396.000000
-2352.000000 -382.000000 -396.000000
-2352.000000 -384.000000 -396.000000
-2352.000000 -386.000000 -396.000000
-2352.000000 -388.000000 -396.000000
-2352.000000 -390.000000 -396.000000
-2352.000000 -392.000000 -396.000000
-2352.000000 -394.000000 -396.000000
-2352.000000 -396.000000 -396.000000
-2352.000000 -398.000000 -396.000000
-2352.000000 -400.000000 -396.000000
-2352.000000 -402.000000 -396.000000
-2352.000000 -404.000000 -396.000000
-2352.000000 -406.000000 -396.000000
-2352.000000 -408.000000 -396.000000
-2352.000000 -410.000000 -396.000000
-2352.000000 -412.000000 -396.000000
-2352.000000 -414.000000 -396.000000
-2352.000000 -416.000000 -396.000000
-2352.000000 -418.000000 -396.000000
-2352.000000 -420.000000 -396.000000
-2352.000000 -422.000000 -396.000000
-2352.000000 -424.000000 -396.000000
-2352.000000 -426.000000 -396.000000
-2352.000000 -428.000000 -396.000000
-2352.000000 -430.000000 -396.000000
-2352.000000 -432.000000 -396.000000
-2352.000000 -434.000000 -396.000000
-2352.000000 -436.000000 -396.000000
-2352.000000 -438.000000 -396.000000
-2352.000000 -440.000000 -396.000000
-2352.000000 -442.000000 -396.000000
-2352.000000 -444.000000 -396.000000
-2352.000000 -446.000000 -396.000000
-2352.000000 -448.000000 -396.000000
-2352.000000 -450.000000 -396.000000
-2352.000000 -452.000000 -396.000000
-2352.000000 -454.000000 -396.000000
-2352.000000 -456.000000 -396.000000
-2352.000000 -458.000000 -396.000000
-2352.000000 -460.000000 -396.000000
-2352.000000 -462.000000 -396.000000
-2352.000000 -464.000000 -396.000000
-2352.000000 -466.000000 -396.000000
-2352.000000 -468.000000 -396.000000
-2352.000000 -470.000000 -396.000000
-2352.000000 -472.000000 -396.000000
-2352.000000 -474.000000 -396.000000
-2352.000000 -476.000000 -396.000000
-2352.000000 -478.000000 -396.000000
-2352.000000 -480.000000 -396.000000
-2352.000000 -482.000000 -396.000000
-2352.000000 -484.000000 -396.000000
-2352.000000 -486.000000 -396.000000
-2352.000000 -488.000000 -396.000000
-2352.000000 -490.000000 -396.000000
-2352.000000 -492.000000 -396.000000
-2352.000000 -494.000000 -396.000000
-2352.000000 -496.000000 -396.000000
-2352.000000 -498.000000 -396.000000
-2352.000000 -500.000000 -396.000000
-2352.000000 -502.000000 -396.000000
-2352.000000 -504.000000 -396.000000
-2352.000000 -506.000000 -396.000000
-2352.000000 -508.000000 -396.000000
-2352.000000 -510.000000 -396.000000
-2352.000000 -512.000000 -396.000000
-2352.000000 -514.000000 -396.000000
-2352.000000 -516.000000 -396.000000
-2352.000000 -518.000000 -396.000000
-2352.000000 -520.000000 -396.000000
-2352.000000 -522.000000 -396.000000
-2352.000000 -524.000000 -396.000000
-2352.000000 -526.000000 -396.000000
-2352.000000 -528.000000 -396.000000
-2352.000000 -530.000000 -396.000000
-2352.000000 -532.000000 -396.000000
-2352.000000 -534.000000 -396.000000
-2352.000000 -536.000000 -396.000000
-2352.000000 -538.000000 -396.000000
-2352.000000 -540.000000 -396.000000
-2352.000000 -542.000000 -396.000000
-2352.000000 -544.000000 -396.000000
-2352.000000 -546.000000 -396.000000
-2352.000000 -548.000000 -396.000000
-2352.000000 -550.000000 -396.000000
-2352.000000 -552.000000 -396.000000
-2352.000000 -554.000000 -396.000000
-2352.000000 -556.000000 -396.000000
-2352.000000 -558.000000 -396.000000
-2352.000000 -560.000000 -396.000000
-2352.000000 -562.000000 -396.000000
-2352.000000 -564.000000 -396.000000
-2352.000000 -566.000000 -396.000000
-2352.000000 -568.000000 -396.000000
-2352.000000 -570.000000 -396.000000
-2352.000000 -572.000000 -396.000000
-2352.000000 -574.000000 -396.000000
-2352.000000 -576.000000 -396.000000
-2352.000000 -578.000000 -396.000000
-2352.000000 -580.000000 -396.000000
-2352.000000 -582.000000 -396.000000
-2352.000000 -584.000000 -396.000000
-2352.000000 -586.000000 -396.000000
-2352.000000 -588.000000 -396.000000
-2352.000000 -590.000000 -396.000000
-2352.000000 -592.000000 -396.000000
-2352.000000 -594.000000 -396.000000
-2352.000000 -596.000000 -396.000000
-2352.000000 -598.000000 -396.000000
-2352.000000 -600.000000 -396.000000
-2352.000000 -602.000000 -396.000000
-2352.000000 -604.000000 -396.000000
-2352.000000 -606.000000 -396.000000
-2352.000000 -608.000000 -396.000000
-2352.000000 -610.000000 -396.000000
-2352.000000 -612.000000 -396.000000
-2352.000000 -614.000000 -396.000000
-2352.000000 -616.000000 -396.000000
-2352.000000 -618.000000 -396.000000
-2352.000000 -620.000000 -396.000000
-2352.000000 -622.000000 -396.000000
-2352.000000 -624.000000 -396.000000
-2352.000000 -626.000000 -396.000000
-2352.000000 -628.000000 -396.000000
-2352.000000 -630.000000 -396.000000
-2352.000000 -632.000000 -396.000000
-2352.000000 -634.000000 -396.000000
-2352.000000 -636.000000 -396.000000
-2352.000000 -638.000000 -396.000000
-2352.000000 -640.000000 -396.000000
-2352.000000 -642.000000 -396.000000
-2352.000000 -644.000000 -396.000000
-2352.000000 -646.000000 -396.000000
-2352.000000 -648.000000 -396.000000
-2352.000000 -650.000000 -396.000000
-2352.000000 -652.000000 -396.000000
-2352.000000 -654.000000 -396.000000
-2352.000000 -656.000000 -396.000000
-2352.000000 -658.000000 -396.000000
-2352.000000 -660.000000 -396.000000
-2352.000000 -662.000000 -396.000000
-2352.000000 -664.000000 -396.000000
-2352.000000 -666.000000 -396.000000
-2352.000000 -668.000000 -396.000000
-2352.000000 -672.000000 -396.000000
-2352.000000 -674.000000 -396.000000
-2352.000000 -676.000000 -396.000000
-2352.000000 -678.000000 -396.000000
-2352.000000 -680.000000 -396.000000
-2352.000000 -682.000000 -396.000000
-2352.000000 -684.000000 -396.000000
-2352.000000 -686.000000 -396.000000
-2352.000000 -688.000000 -396.000000
-2352.000000 -690.000000 -396.000000
-2352.000000 -692.000000 -396.000000
-2352.000000 -694.000000 -396.000000
-2352.000000 -696.000000 -396.000000
-2352.000000 -698.000000 -396.000000
-2352.000000 -700.000000 -396.000000
-2352.000000 -702.000000 -396.000000
-2352.000000 -704.000000 -396.000000
-2352.000000 -706.000000 -396.000000
-2352.000000 -708.000000 -396.000000
-2352.000000 -710.000000 -396.000000
-2352.000000 -712.000000 -396.000000
-2352.000000 -714.000000 -396.000000
-2352.000000 -716.000000 -396.000000
-2352.000000 -718.000000 -396.000000
-2352.000000 -720.000000 -396.000000
-2352.000000 -722.000000 -396.000000
-2352.000000 -724.000000 -396.000000
-2352.000000 -726.000000 -396.000000
-2352.000000 -728.000000 -396.000000
-2352.000000 -730.000000 -396.000000
-2352.000000 -732.000000 -396.000000
-2352.000000 -734.000000 -396.000000
-2352.000000 -736.000000 -396.000000
-2352.000000 -738.000000 -396.000000
-2352.000000 -740.000000 -396.000000
-2352.000000 -742.000000 -396.000000
-2352.000000 -744.000000 -396.000000
-2352.000000 -746.000000 -396.000000
-2352.000000 -748.000000 -396.000000
-2352.000000 -750.000000 -396.000000
-2352.000000 -752.000000 -396.000000
-2352.000000 -754.000000 -396.000000
-2352.000000 -756.000000 -396.000000
-2352.000000 -758.000000 -396.000000
-2352.000000 -760.000000 -396.000000
-2352.000000 -762.000000 -396.000000
-2352.000000 -764.000000 -396.000000
-2352.000000 -766.000000 -396.000000
-2352.000000 -768.000000 -396.000000
-2352.000000 -770.000000 -396.000000
-2352.000000 -772.000000 -396.000000
-2352.000000 -774.000000 -396.000000
-2352.000000 -776.000000 -396.000000
-2352.000000 -778.000000 -396.000000
-2352.000000 -780.000000 -396.000000
-2352.000000 -782.000000 -396.000000
-2352.000000 -784.000000 -396.000000
-2352.000000 -786.000000 -396.000000
-2352.000000 -788.000000 -396.000000
-2352.000000 -790.000000 -396.000000
-2352.000000 -792.000000 -396.000000
-2352.000000 -794.000000 -396.000000
-2352.000000 -796.000000 -396.000000
-2352.000000 -798.000000 -396.000000
-2352.000000 -800.000000 -396.000000
-2352.000000 -802.000000 -396.000000
-2352.000000 -804.000000 -396.000000
-2352.000000 -806.000000 -396.000000
-2352.000000 -808.000000 -396.000000
-2352.000000 -810.000000 -396.000000
-2352.000000 -812.000000 -396.000000
-2352.000000 -816.000000 -396.000000
-2351.257219 -817.856953 -396.000000
-2350.514437 -819.713907 -396.000000
-2349.771656 -821.570860 -396.000000
-2349.028875 -823.427814 -396.000000
-2348.286093 -825.284767 -396.000000
-2347.543312 -827.141720 -396.000000
-2346.800531 -828.998674 -396.000000
-2346.057749 -830.855627 -396.000000
-2345.314968 -832.712580 -396.000000
-2344.572186 -834.569534 -396.000000
-2343.829405 -836.426487 -396.000000
-2343.086624 -838.283441 -396.000000
-2342.343842 -840.140394 -396.000000
-2341.601061 -841.997347 -396.000000
-2340.858280 -843.854301 -396.000000
-2340.115498 -845.711254 -396.000000
-2339.372717 -847.568207 -396.000000
-2338.629936 -849.425161 -396.000000
-2337.887154 -851.282114 -396.000000
-2337.144373 -853.139068 -396.000000
-2336.401592 -854.996021 -396.000000
-2335.658810 -856.852974 -396.000000
-2334.916029 -858.709928 -396.000000
-2334.173248 -860.566881 -396.000000
-2333.430466 -862.423835 -396.000000
-2332.687685 -864.280788 -396.000000
-2331.944903 -866.137741 -396.000000
-2331.202122 -867.994695 -396.000000
-2330.459341 -869.851648 -396.000000
-2329.716559 -871.708601 -396.000000
-2328.973778 -873.565555 -396.000000
-2328.230997 -875.422508 -396.000000
-2327.488215 -877.279462 -396.000000
-2326.745434 -879.136415 -396.000000
-2326.002653 -880.993368 -396.000000
-2325.259871 -882.850322 -396.000000
-2324.517090 -884.707275 -396.000000
-2323.774309 -886.564229 -396.000000
-2323.031527 -888.421182 -396.000000
-2322.288746 -890.278135 -396.000000
-2321.545965 -892.135089 -396.000000
-2320.803183 -893.992042 -396.000000
-2320.060402 -895.848995 -396.000000
-2319.317620 -897.705949 -396.000000
-2318.574839 -899.562902 -396.000000
-2317.832058 -901.419856 -396.000000
-2317.089276 -903.276809 -396.000000
-2316.346495 -905.133762 -396.000000
-2315.603714 -906.990716 -396.000000
-2314.860932 -908.847669 -396.000000
-2314.118151 -910.704622 -396.000000
-2313.375370 -912.561576 -396.000000
-2312.632588 -914.418529 -396.000000
-2311.889807 -916.275483 -396.000000
-2311.147026 -918.132436 -396.000000
-2310.404244 -919.989389 -396.000000
-2309.661463 -921.846343 -396.000000
-2308.918682 -923.703296 -396.000000
-2308.175900 -925.560250 -396.000000
-2307.433119 -927.417203 -396.000000
-2306.690337 -929.274156 -396.000000
-2305.947556 -931.131110 -396.000000
-2305.204775 -932.988063 -396.000000
-2304.461993 -934.845016 -396.000000
-2303.719212 -936.701970 -396.000000
-2302.976431 -938.558923 -396.000000
-2302.233649 -940.415877 -396.000000
-2301.490868 -942.272830 -396.000000
-2300.748087 -944.129783 -396.000000
-2300.005305 -945.986737 -396.000000
-2299.262524 -947.843690 -396.000000
-2298.519743 -949.700643 -396.000000
-2297.776961 -951.557597 -396.000000
-2297.034180 -953.414550 -396.000000
-2296.291399 -955.271504 -396.000000
-2295.548617 -957.128457 -396.000000
-2294.805836 -958.985410 -396.000000
-2294.063054 -960.842364 -396.000000
-2293.320273 -962.699317 -396.000000
-2292.577492 -964.556271 -396.000000
-2291.834710 -966.413224 -396.000000
-2291.091929 -968.270177 -396.000000
-2290.349148 -970.127131 -396.000000
-2289.606366 -971.984084 -396.000000
-2288.863585 -973.841037 -396.000000
-2288.120804 -975.697991 -396.000000
-2287.378022 -977.554944 -396.000000
-2286.635241 -979.411898 -396.000000
-2285.892460 -981.268851 -396.000000
-2285.149678 -983.125804 -396.000000
-2284.406897 -984.982758 -396.000000
-2283.664116 -986.839711 -396.000000
-2282.921334 -988.696665 -396.000000
-2282.178553 -990.553618 -396.000000
-2281.435771 -992.410571 -396.000000
-2280.692990 -994.267525 -396.000000
-2279.950209 -996.124478 -396.000000
-2279.207427 -997.981431 -396.000000
-2278.464646 -999.838385 -396.000000
-2277.721865 -1001.695338 -396.000000
-2276.979083 -1003.552292 -396.000000
-2276.236302 -1005.409245 -396.000000
-2275.493521 -1007.266198 -396.000000
-2274.750739 -1009.123152 -396.000000
-2274.007958 -1010.980105 -396.000000
-2273.265177 -1012.837058 -396.000000
-2272.522395 -1014.694012 -396.000000
-2271.779614 -1016.550965 -396.000000
-2271.036833 -1018.407919 -396.000000
-2270.294051 -1020.264872 -396.000000
-2269.551270 -1022.121825 -396.000000
-2268.808488 -1023.978779 -396.000000
-2268.065707 -1025.835732 -396.000000
-2267.322926 -1027.692686 -396.000000
-2266.580144 -1029.549639 -396.000000
-2265.837363 -1031.406592 -396.000000
-2265.094582 -1033.263546 -396.000000
-2264.351800 -1035.120499 -396.000000
-2263.609019 -1036.977452 -396.000000
-2262.866238 -1038.834406 -396.000000
-2262.123456 -1040.691359 -396.000000
-2261.380675 -1042.548313 -396.000000
-2260.637894 -1044.405266 -396.000000
-2259.895112 -1046.262219 -396.000000
-2259.152331 -1048.119173 -396.000000
-2258.409550 -1049.976126 -396.000000
-2257.666768 -1051.833079 -396.000000
-2256.923987 -1053.690033 -396.000000
-2256.181206 -1055.546986 -396.000000
-2255.438424 -1057.403940 -396.000000
-2254.695643 -1059.260893 -396.000000
-2253.952861 -1061.117846 -396.000000
-2253.210080 -1062.974800 -396.000000
-2252.467299 -1064.831753 -396.000000
-2251.724517 -1066.688707 -396.000000
-2250.981736 -1068.545660 -396.000000
-2250.238955 -1070.402613 -396.000000
-2249.496173 -1072.259567 -396.000000
-2248.753392 -1074.116520 -396.000000
-2248.010611 -1075.973473 -396.000000
-2247.267829 -1077.830427 -396.000000
-2246.525048 -1079.687380 -396.000000
-2245.782267 -1081.544334 -396.000000
-2245.039485 -1083.401287 -396.000000
-2244.296704 -1085.258240 -396.000000
-2243.553923 -1087.115194 -396.000000
-2242.811141 -1088.972147 -396.000000
-2242.068360 -1090.829101 -396.000000
-2241.325578 -1092.686054 -396.000000
-2240.582797 -1094.543007 -396.000000
-2239.840016 -1096.399961 -396.000000
-2239.097234 -1098.256914 -396.000000
-2238.354453 -1100.113867 -396.000000
-2237.611672 -1101.970821 -396.000000
-2236.868890 -1103.827774 -396.000000
-2236.126109 -1105.684728 -396.000000
-2235.383328 -1107.541681 -396.000000
-2234.640546 -1109.398634 -396.000000
-2233.897765 -1111.255588 -396.000000
-2233.154984 -1113.112541 -396.000000
-2232.412202 -1114.969494 -396.000000
-2231.669421 -1116.826448 -396.000000
-2230.926640 -1118.683401 -396.000000
-2230.183858 -1120.540355 -396.000000
-2229.441077 -1122.397308 -396.000000
-2228.698295 -1124.254261 -396.000000
-2227.955514 -1126.111215 -396.000000
-2227.212733 -1127.968168 -396.000000
-2226.469951 -1129.825122 -396.000000
-2225.727170 -1131.682075 -396.000000
-2224.984389 -1133.539028 -396.000000
-2224.000000 -1136.000000 -396.000000
-2225.690978 -1137.067986 -396.000000
-2227.381956 -1138.135972 -396.000000
-2229.072933 -1139.203958 -396.000000
-2230.763911 -1140.271944 -396.000000
-2232.454889 -1141.339930 -396.000000
-2234.145867 -1142.407916 -396.000000
-2235.836845 -1143.475902 -396.000000
-2237.527822 -1144.543888 -396.000000
-2239.218800 -1145.611874 -396.000000
-2240.909778 -1146.679860 -396.000000
-2242.600756 -1147.747846 -396.000000
-2244.291734 -1148.815832 -396.000000
-2245.982711 -1149.883818 -396.000000
-2247.673689 -1150.951804 -396.000000
-2249.364667 -1152.019790 -396.000000
-2251.055645 -1153.087776 -396.000000
-2252.746623 -1154.155762 -396.000000
-2254.437601 -1155.223748 -396.000000
-2256.128578 -1156.291734 -396.000000
-2257.819556 -1157.359720 -396.000000
-2259.510534 -1158.427706 -396.000000
-2261.201512 -1159.495692 -396.000000
-2262.892490 -1160.563678 -396.000000
-2264.583467 -1161.631664 -396.000000
-2266.274445 -1162.699650 -396.000000
-2267.965423 -1163.767636 -396.000000
-2269.656401 -1164.835622 -396.000000
-2271.347379 -1165.903608 -396.000000
-2273.038356 -1166.971594 -396.000000
-2274.729334 -1168.039579 -396.000000
-2276.420312 -1169.107565 -396.000000
-2278.111290 -1170.175551 -396.000000
-2279.802268 -1171.243537 -396.000000
-2281.493245 -1172.311523 -396.000000
-2283.184223 -1173.379509 -396.000000
-2284.875201 -1174.447495 -396.000000
-2286.566179 -1175.515481 -396.000000
-2288.257157 -1176.583467 -396.000000
-2289.948134 -1177.651453 -396.000000
-2291.639112 -1178.719439 -396.000000
-2293.330090 -1179.787425 -396.000000
-2295.021068 -1180.855411 -396.000000
-2296.712046 -1181.923397 -396.000000
-2298.403023 -1182.991383 -396.000000
-2300.094001 -1184.059369 -396.000000
-2301.784979 -1185.127355 -396.000000
-2303.475957 -1186.195341 -396.000000
-2305.166935 -1187.263327 -396.000000
-2306.857912 -1188.331313 -396.000000
-2308.548890 -1189.399299 -396.000000
-2310.239868 -1190.467285 -396.000000
-2311.930846 -1191.535271 -396.000000
-2313.621824 -1192.603257 -396.000000
-2315.312802 -1193.671243 -396.000000
-2317.003779 -1194.739229 -396.000000
-2318.694757 -1195.807215 -396.000000
-2320.385735 -1196.875201 -396.000000
-2322.076713 -1197.943187 -396.000000
-2323.767691 -1199.011173 -396.000000
-2325.458668 -1200.079159 -396.000000
-2327.149646 -1201.147145 -396.000000
-2328.840624 -1202.215131 -396.000000
-2330.531602 -1203.283117 -396.000000
-2332.222580 -1204.351103 -396.000000
-2333.913557 -1205.419089 -396.000000
-2335.604535 -1206.487075 -396.000000
-2337.295513 -1207.555061 -396.000000
-2338.986491 -1208.623047 -396.000000
-2340.677469 -1209.691033 -396.000000
-2342.368446 -1210.759019 -396.000000
-2344.059424 -1211.827005 -396.000000
-2345.750402 -1212.894991 -396.000000
-2347.441380 -1213.962977 -396.000000
-2349.132358 -1215.030963 -396.000000
-2350.823335 -1216.098949 -396.000000
-2352.514313 -1217.166935 -396.000000
-2354.205291 -1218.234921 -396.000000
-2355.896269 -1219.302907 -396.000000
-2357.587247 -1220.370893 -396.000000
-2359.278224 -1221.438879 -396.000000
-2360.969202 -1222.506865 -396.000000
-2362.660180 -1223.574851 -396.000000
-2364.351158 -1224.642837 -396.000000
-2366.042136 -1225.710823 -396.000000
-2367.733114 -1226.778809 -396.000000
-2369.424091 -1227.846795 -396.000000
-2371.115069 -1228.914781 -396.000000
-2372.806047 -1229.982766 -396.000000
-2374.497025 -1231.050752 -396.000000
-2376.188003 -1232.118738 -396.000000
-2377.878980 -1233.186724 -396.000000
-2379.569958 -1234.254710 -396.000000
-2381.260936 -1235.322696 -396.000000
-2382.951914 -1236.390682 -396.000000
-2384.642892 -1237.458668 -396.000000
-2386.333869 -1238.526654 -396.000000
-2388.024847 -1239.594640 -396.000000
-2389.715825 -1240.662626 -396.000000
-2391.406803 -1241.730612 -396.000000
-2393.097781 -1242.798598 -396.000000
-2394.788758 -1243.866584 -396.000000
-2396.479736 -1244.934570 -396.000000
-2398.170714 -1246.002556 -396.000000
-2399.861692 -1247.070542 -396.000000
-2401.552670 -1248.138528 -396.000000
-2403.243647 -1249.206514 -396.000000
-2404.934625 -1250.274500 -396.000000
-2406.625603 -1251.342486 -396.000000
-2408.316581 -1252.410472 -396.000000
-2410.007559 -1253.478458 -396.000000
-2411.698536 -1254.546444 -396.000000
-2413.389514 -1255.614430 -396.000000
-2415.080492 -1256.682416 -396.000000
-2416.771470 -1257.750402 -396.000000
-2418.462448 -1258.818388 -396.000000
-2420.153426 -1259.886374 -396.000000
-2421.844403 -1260.954360 -396.000000
-2423.535381 -1262.022346 -396.000000
-2425.226359 -1263.090332 -396.000000
-2426.917337 -1264.158318 -396.000000
-2428.608315 -1265.226304 -396.000000
-2430.299292 -1266.294290 -396.000000
-2431.990270 -1267.362276 -396.000000
-2433.681248 -1268.430262 -396.000000
-2435.372226 -1269.498248 -396.000000
-2437.063204 -1270.566234 -396.000000
-2438.754181 -1271.634220 -396.000000
-2440.445159 -1272.702206 -396.000000
-2442.136137 -1273.770192 -396.000000
-2443.827115 -1274.838178 -396.000000
-2445.518093 -1275.906164 -396.000000
-2447.209070 -1276.974150 -396.000000
-2448.900048 -1278.042136 -396.000000
-2450.591026 -1279.110122 -396.000000
-2452.282004 -1280.178108 -396.000000
-2453.972982 -1281.246094 -396.000000
-2455.663959 -1282.314080 -396.000000
-2457.354937 -1283.382066 -396.000000
-2459.045915 -1284.450052 -396.000000
-2460.736893 -1285.518038 -396.000000
-2462.427871 -1286.586024 -396.000000
-2464.118848 -1287.654010 -396.000000
-2465.809826 -1288.721996 -396.000000
-2467.500804 -1289.789982 -396.000000
-2469.191782 -1290.857968 -396.000000
-2470.882760 -1291.925953 -396.000000
-2472.573737 -1292.993939 -396.000000
-2474.264715 -1294.061925 -396.000000
-2475.955693 -1295.129911 -396.000000
-2477.646671 -1296.197897 -396.000000
-2479.337649 -1297.265883 -396.000000
-2481.028627 -1298.333869 -396.000000
-2482.719604 -1299.401855 -396.000000
-2484.410582 -1300.469841 -396.000000
-2486.101560 -1301.537827 -396.000000
-2487.792538 -1302.605813 -396.000000
-2489.483516 -1303.673799 -396.000000
-2491.174493 -1304.741785 -396.000000
-2492.865471 -1305.809771 -396.000000
-2494.556449 -1306.877757 -396.000000
-2496.247427 -1307.945743 -396.000000
-2497.938405 -1309.013729 -396.000000
-2499.629382 -1310.081715 -396.000000
-2501.320360 -1311.149701 -396.000000
-2503.011338 -1312.217687 -396.000000
-2504.702316 -1313.285673 -396.000000
-2506.393294 -1314.353659 -396.000000
-2508.084271 -1315.421645 -396.000000
-2509.775249 -1316.489631 -396.000000
-2511.466227 -1317.557617 -396.000000
-2513.157205 -1318.625603 -396.000000
-2514.848183 -1319.693589 -396.000000
-2516.539160 -1320.761575 -396.000000
-2518.230138 -1321.829561 -396.000000
-2519.921116 -1322.897547 -396.000000
-2521.612094 -1323.965533 -396.000000
-2523.303072 -1325.033519 -396.000000
-2524.994049 -1326.101505 -396.000000
-2528.000000 -1328.000000 -396.000000
-2528.229248 -1329.986818 -396.000000
-2528.458496 -1331.973636 -396.000000
-2528.687745 -1333.960454 -396.000000
-2528.916993 -1335.947271 -396.000000
-2529.146241 -1337.934089 -396.000000
-2529.375489 -1339.920907 -396.000000
-2529.604738 -1341.907725 -396.000000
-2529.833986 -1343.894543 -396.000000
-2530.063234 -1345.881361 -396.000000
-2530.292482 -1347.868179 -396.000000
-2530.521730 -1349.854997 -396.000000
-2530.750979 -1351.841814 -396.000000
-2530.980227 -1353.828632 -396.000000
-2531.209475 -1355.815450 -396.000000
-2531.438723 -1357.802268 -396.000000
-2531.667971 -1359.789086 -396.000000
-2531.897220 -1361.775904 -396.000000
-2532.126468 -1363.762722 -396.000000
-2532.355716 -1365.749540 -396.000000
-2532.584964 -1367.736357 -396.000000
-2532.814213 -1369.723175 -396.000000
-2533.043461 -1371.709993 -396.000000
-2533.272709 -1373.696811 -396.000000
-2533.501957 -1375.683629 -396.000000
-2533.731205 -1377.670447 -396.000000
-2533.960454 -1379.657265 -396.000000
-2534.189702 -1381.644083 -396.000000
-2534.418950 -1383.630900 -396.000000
-2534.648198 -1385.617718 -396.000000
-2534.877446 -1387.604536 -396.000000
-2535.106695 -1389.591354 -396.000000
-2535.335943 -1391.578172 -396.000000
-2535.565191 -1393.564990 -396.000000
-2535.794439 -1395.551808 -396.000000
-2536.023688 -1397.538626 -396.000000
-2536.252936 -1399.525443 -396.000000
-2536.482184 -1401.512261 -396.000000
-2536.711432 -1403.499079 -396.000000
-2536.940680 -1405.485897 -396.000000
-2537.169929 -1407.472715 -396.000000
-2537.399177 -1409.459533 -396.000000
-2537.628425 -1411.446351 -396.000000
-2537.857673 -1413.433168 -396.000000
-2538.086922 -1415.419986 -396.000000
-2538.316170 -1417.406804 -396.000000
-2538.545418 -1419.393622 -396.000000
-2538.774666 -1421.380440 -396.000000
-2539.003914 -1423.367258 -396.000000
-2539.233163 -1425.354076 -396.000000
-2539.462411 -1427.340894 -396.000000
-2539.691659 -1429.327711 -396.000000
-2539.920907 -1431.314529 -396.000000
-2540.150155 -1433.301347 -396.000000
-2540.379404 -1435.288165 -396.000000
-2540.608652 -1437.274983 -396.000000
-2540.837900 -1439.261801 -396.000000
-2541.067148 -1441.248619 -396.000000
-2541.296397 -1443.235437 -396.000000
-2541.525645 -1445.222254 -396.000000
-2541.754893 -1447.209072 -396.000000
-2541.984141 -1449.195890 -396.000000
-2542.213389 -1451.182708 -396.000000
-2542.442638 -1453.169526 -396.000000
-2542.671886 -1455.156344 -396.000000
-2542.901134 -1457.143162 -396.000000
-2543.130382 -1459.129980 -396.000000
-2543.359630 -1461.116797 -396.000000
-2543.588879 -1463.103615 -396.000000
-2543.818127 -1465.090433 -396.000000
-2544.047375 -1467.077251 -396.000000
-2544.276623 -1469.064069 -396.000000
-2544.505872 -1471.050887 -396.000000
-2544.735120 -1473.037705 -396.000000
-2544.964368 -1475.024523 -396.000000
-2545.193616 -1477.011340 -396.000000
-2545.422864 -1478.998158 -396.000000
-2545.652113 -1480.984976 -396.000000
-2545.881361 -1482.971794 -396.000000
-2546.110609 -1484.958612 -396.000000
-2546.339857 -1486.945430 -396.000000
-2546.569105 -1488.932248 -396.000000
-2546.798354 -1490.919065 -396.000000
-2547.027602 -1492.905883 -396.000000
-2547.256850 -1494.892701 -396.000000
-2547.486098 -1496.879519 -396.000000
-2547.715347 -1498.866337 -396.000000
-2547.944595 -1500.853155 -396.000000
-2548.173843 -1502.839973 -396.000000
-2548.403091 -1504.826791 -396.000000
-2548.632339 -1506.813608 -396.000000
-2548.861588 -1508.800426 -396.000000
-2549.090836 -1510.787244 -396.000000
-2549.320084 -1512.774062 -396.000000
-2549.549332 -1514.760880 -396.000000
-2549.778581 -1516.747698 -396.000000
-2550.007829 -1518.734516 -396.000000
-2550.237077 -1520.721334 -396.000000
-2550.466325 -1522.708151 -396.000000
-2550.695573 -1524.694969 -396.000000
-2550.924822 -1526.681787 -396.000000
-2551.154070 -1528.668605 -396.000000
-2551.383318 -1530.655423 -396.000000
-2551.612566 -1532.642241 -396.000000
-2552.000000 -1536.000000 -396.000000
-2552.033494 -1536.887597 -394.208060
-2552.066988 -1537.775193 -392.416119
-2552.100483 -1538.662790 -390.624179
-2552.133977 -1539.550387 -388.832238
-2552.167471 -1540.437983 -387.040298
-2552.200965 -1541.325580 -385.248358
-2552.234459 -1542.213176 -383.456417
-2552.267954 -1543.100773 -381.664477
-2552.301448 -1543.988370 -379.872537
-2552.334942 -1544.875966 -378.080596
-2552.368436 -1545.763563 -376.288656
-2552.401931 -1546.651160 -374.496715
-2552.435425 -1547.538756 -372.704775
-2552.468919 -1548.426353 -370.912835
-2552.502413 -1549.313950 -369.120894
-2552.535907 -1550.201546 -367.328954
-2552.569402 -1551.089143 -365.537013
-2552.602896 -1551.976740 -363.745073
-2552.636390 -1552.864336 -361.953133
-2552.669884 -1553.751933 -360.161192
-2552.703378 -1554.639529 -358.369252
-2552.736873 -1555.527126 -356.577312
-2552.770367 -1556.414723 -354.785371
-2552.803861 -1557.302319 -352.993431
-2552.837355 -1558.189916 -351.201490
-2552.870850 -1559.077513 -349.409550
-2552.904344 -1559.965109 -347.617610
-2552.937838 -1560.852706 -345.825669
-2552.971332 -1561.740303 -344.033729
-2553.004826 -1562.627899 -342.241788
-2553.038321 -1563.515496 -340.449848
-2553.071815 -1564.403092 -338.657908
-2553.105309 -1565.290689 -336.865967
-2553.138803 -1566.178286 -335.074027
-2553.172297 -1567.065882 -333.282087
-2553.205792 -1567.953479 -331.490146
-2553.239286 -1568.841076 -329.698206
-2553.272780 -1569.728672 -327.906265
-2553.306274 -1570.616269 -326.114325
-2553.339769 -1571.503866 -324.322385
-2553.373263 -1572.391462 -322.530444
-2553.406757 -1573.279059 -320.738504
-2553.440251 -1574.166655 -318.946563
-2553.473745 -1575.054252 -317.154623
-2553.507240 -1575.941849 -315.362683
-2553.540734 -1576.829445 -313.570742
-2553.574228 -1577.717042 -311.778802
-2553.607722 -1578.604639 -309.986862
-2553.641216 -1579.492235 -308.194921
-2553.674711 -1580.379832 -306.402981
-2553.708205 -1581.267429 -304.611040
-2553.741699 -1582.155025 -302.819100
-2553.775193 -1583.042622 -301.027160
-2553.808687 -1583.930219 -299.235219
-2553.842182 -1584.817815 -297.443279
-2553.875676 -1585.705412 -295.651338
-2553.909170 -1586.593008 -293.859398
-2553.942664 -1587.480605 -292.067458
-2553.976159 -1588.368202 -290.275517
-2554.009653 -1589.255798 -288.483577
-2554.043147 -1590.143395 -286.691637
-2554.076641 -1591.030992 -284.899696
-2554.110135 -1591.918588 -283.107756
-2554.143630 -1592.806185 -281.315815
-2554.177124 -1593.693782 -279.523875
-2554.210618 -1594.581378 -277.731935
-2554.244112 -1595.468975 -275.939994
-2554.277606 -1596.356571 -274.148054
-2554.311101 -1597.244168 -272.356113
-2554.344595 -1598.131765 -270.564173
-2554.378089 -1599.019361 -268.772233
-2554.411583 -1599.906958 -266.980292
-2554.445078 -1600.794555 -265.188352
-2554.478572 -1601.682151 -263.396412
-2554.512066 -1602.569748 -261.604471
-2554.545560 -1603.457345 -259.812531
-2554.579054 -1604.344941 -258.020590
-2554.612549 -1605.232538 -256.228650
-2554.646043 -1606.120135 -254.436710
-2554.679537 -1607.007731 -252.644769
-2554.713031 -1607.895328 -250.852829
